0.0	1.44	0.2037924841000284
-2.494153162899183	4.32	0.23659184170525766
-2.494153162899183	5.76	0.35610546967144047
1.2470765814495914	3.6	0.23659184170528946
0.0	5.76	0.3561054696715228
2.494153162899183	4.32	0.03645363265392262
-1.2470765814495914	6.4799999999999995	0.03433832287418839
-1.2470765814495914	7.92	0.3704154429130335
1.2470765814495914	6.4799999999999995	0.013934599702272052
2.494153162899183	5.76	0.036453632653968726
3.7412297443487748	7.92	0.03433832287411841
3.7412297443487748	6.4799999999999995	0.17067926707612263
-3.7412297443487748	7.92	0.49698704561154433
-4.988306325798366	8.64	0.03137106949410952
1.2470765814495914	7.92	0.09885981572167701
-1.2470765814495914	12.239999999999998	0.031371069494060065
3.7412297443487748	10.799999999999999	0.09885981572160633
2.494153162899183	12.959999999999999	0.1706792670760005
-3.7412297443487748	6.4799999999999995	0.4969870456113634
-2.494153162899183	8.64	0.36675788551422306
-4.988306325798366	10.08	0.3600864502189004
6.235382907247957	10.799999999999999	0.2504381704643961
3.7412297443487748	12.239999999999998	0.0034836499255671474
4.988306325798366	12.959999999999999	1.338931169307635e-27
6.235382907247957	12.239999999999998	0.39543926288666775
-4.988306325798366	12.959999999999999	0.25043817046429334
-6.235382907247957	12.239999999999998	0.003483649925569523
2.494153162899183	8.64	0.3667578855141917
1.2470765814495914	12.239999999999998	0.3600864502189827
1.2470765814495914	10.799999999999999	0.1468474917836036
0.0	12.959999999999999	0.05094812102500173
-1.2470765814495914	10.799999999999999	0.01065028573728969
-2.494153162899183	12.959999999999999	0.0926038607282477
2.494153162899183	10.08	1.106430280613692e-05
-3.7412297443487748	12.239999999999998	0.17195705026344948
-3.7412297443487748	10.799999999999999	0.45908318897085026
0.0	10.08	0.7925968873045044
-6.235382907247957	10.799999999999999	0.6827170683042365
4.988306325798366	10.08	0.459083188970799
4.988306325798366	8.64	0.7925968873043971
-2.494153162899183	10.08	0.17195705026337071
0.0	8.64	0.09260386072831346
1.2470765814495914	2.16	1.1064302805213386e-05
0.0	4.32	0.010650285737310833
-1.2470765814495914	3.6	0.14684749178365725
-1.2470765814495914	2.16	0.05094812102503739
