7.92	3.7412297443487743	0.0
10.08	-2.494153162899183	2.7810428396951686e-31
12.24	1.2470765814495914	1.5357530187633971e-31
10.8	6.235382907247957	0.05049768378990238
8.64	0.0	0.01449312094581282
6.48	-1.2470765814495914	0.017867326935991863
2.16	1.2470765814495914	0.054158109983614755
8.64	4.988306325798366	0.0006506460298644047
12.96	-4.988306325798366	0.02604667410608047
10.8	3.7412297443487743	0.03968427862043109
4.32	-2.494153162899183	0.03593030774190365
4.32	0.0	0.0018633065965175098
10.8	-1.2470765814495914	0.017442038540281434
12.96	2.494153162899183	0.17971327879080265
12.24	6.235382907247957	1.1560394491184383e-31
6.48	3.7412297443487743	0.03436659723183883
8.64	-2.494153162899183	0.000176394050025867
10.8	-6.235382907247957	0.02604667410608055
5.76	0.0	2.7810428396951686e-31
12.24	-3.7412297443487743	2.0067866731225416e-31
10.08	0.0	3.2548216060144286e-32
7.92	-3.7412297443487743	1.016072381412506e-31
10.08	-4.988306325798366	9.993991046615483e-32
12.24	3.7412297443487743	2.4960052079258577e-31
5.76	-2.494153162899183	1.7333369499485123e-31
10.08	4.988306325798366	9.020900954987771e-32
8.64	2.494153162899183	0.04447461922945348
7.92	1.2470765814495914	1.4164283436051921e-31
6.48	-3.7412297443487743	0.003123043201085589
12.24	-6.235382907247957	4.193249053683003e-31
3.6	-1.2470765814495914	1.232595164407831e-32
12.96	-2.494153162899183	0.07849903269172379
10.8	1.2470765814495914	0.00013644415947596284
4.32	2.494153162899183	0.07611252541836123
1.44	0.0	1.8508186765561337e-31
10.8	-3.7412297443487743	0.014110343755156308
12.96	0.0	0.16994602116331362
2.16	-1.2470765814495914	0.05415810998361491
6.48	1.2470765814495914	0.00819073610801402
3.6	1.2470765814495914	1.0188169405808478e-31
12.24	-1.2470765814495914	1.7495141509801825e-32
12.96	4.988306325798366	0.050497683789902444
7.92	-1.2470765814495914	1.1093356479670479e-31
8.64	-4.988306325798366	0.001815003030749689
5.76	2.494153162899183	2.494509570302687e-32
10.08	2.494153162899183	2.6911468490677144e-31
