0.0	1.44	0.1677643331212453
-2.494153162899183	4.32	0.1159429247559241
-2.494153162899183	5.76	0.5533137251229256
1.2470765814495914	3.6	0.029133613660538113
0.0	5.76	0.018264446808302234
2.494153162899183	4.32	0.11594292475592527
-1.2470765814495914	6.4799999999999995	0.0007728057675277996
-1.2470765814495914	7.92	0.3157432091701831
1.2470765814495914	6.4799999999999995	0.0007728057675278502
2.494153162899183	5.76	0.5533137251229286
3.7412297443487748	7.92	0.5533137251229273
3.7412297443487748	6.4799999999999995	0.781117785667979
-3.7412297443487748	7.92	0.5533137251229334
-4.988306325798366	8.64	0.11594292475592695
1.2470765814495914	7.92	0.3157432091701835
-1.2470765814495914	12.239999999999998	0.5533137251229271
3.7412297443487748	10.799999999999999	0.08013877778357359
2.494153162899183	12.959999999999999	0.11594292475592641
-3.7412297443487748	6.4799999999999995	0.7811177856679818
-2.494153162899183	8.64	0.0007728057675280619
-4.988306325798366	10.08	0.02913361366053807
6.235382907247957	10.799999999999999	0.11883778580550759
3.7412297443487748	12.239999999999998	0.02913361366053871
4.988306325798366	12.959999999999999	0.11883778580550552
6.235382907247957	12.239999999999998	0.16776433312125041
-4.988306325798366	12.959999999999999	0.11883778580550612
-6.235382907247957	12.239999999999998	0.1677643331212484
2.494153162899183	8.64	0.0007728057675279929
1.2470765814495914	12.239999999999998	0.5533137251229325
1.2470765814495914	10.799999999999999	0.0007728057675281173
0.0	12.959999999999999	0.7811177856679774
-1.2470765814495914	10.799999999999999	0.0007728057675279478
-2.494153162899183	12.959999999999999	0.11594292475592352
2.494153162899183	10.08	0.01826444680830066
-3.7412297443487748	12.239999999999998	0.0291336136605394
-3.7412297443487748	10.799999999999999	0.08013877778357263
0.0	10.08	0.3157432091701814
-6.235382907247957	10.799999999999999	0.11883778580550464
4.988306325798366	10.08	0.029133613660540035
4.988306325798366	8.64	0.11594292475592329
-2.494153162899183	10.08	0.01826444680830095
0.0	8.64	1.0029092116715912
1.2470765814495914	2.16	0.11883778580550297
0.0	4.32	0.08013877778357417
-1.2470765814495914	3.6	0.02913361366053903
-1.2470765814495914	2.16	0.11883778580550382
